# .PCD v0.7 - Point Cloud Data file format
VERSION 0.7
FIELDS x y z rgb
SIZE 4 4 4 4
TYPE F F F F
COUNT 1 1 1 1
WIDTH 145
HEIGHT 1
VIEWPOINT 0 0 0 1 0 0 0
POINTS 145
DATA ascii
100 0 0 0
92.38795 38.26834 0 0
70.71068 70.71068 0 0
38.26834 92.38795 0 0
6.123032E-15 100 0 0
-38.26834 92.38795 0 0
-70.71068 70.71068 0 0
-92.38795 38.26834 0 0
-100 1.224606E-14 0 0
-92.38795 -38.26834 0 0
-70.71068 -70.71068 0 0
-38.26834 -92.38795 0 0
-1.83691E-14 -100 0 0
38.26834 -92.38795 0 0
70.71068 -70.71068 0 0
92.38795 -38.26834 0 0
100 0 10 0
92.38795 38.26834 10 0
70.71068 70.71068 10 0
38.26834 92.38795 10 0
6.123032E-15 100 10 0
-38.26834 92.38795 10 0
-70.71068 70.71068 10 0
-92.38795 38.26834 10 0
-100 1.224606E-14 10 0
-92.38795 -38.26834 10 0
-70.71068 -70.71068 10 0
-38.26834 -92.38795 10 0
-1.83691E-14 -100 10 0
38.26834 -92.38795 10 0
70.71068 -70.71068 10 0
92.38795 -38.26834 10 0
100 0 20 0
92.38795 38.26834 20 0
70.71068 70.71068 20 0
38.26834 92.38795 20 0
6.123032E-15 100 20 0
-38.26834 92.38795 20 0
-70.71068 70.71068 20 0
-92.38795 38.26834 20 0
-100 1.224606E-14 20 0
-92.38795 -38.26834 20 0
-70.71068 -70.71068 20 0
-38.26834 -92.38795 20 0
-1.83691E-14 -100 20 0
38.26834 -92.38795 20 0
70.71068 -70.71068 20 0
92.38795 -38.26834 20 0
100 0 30 0
92.38795 38.26834 30 0
70.71068 70.71068 30 0
38.26834 92.38795 30 0
6.123032E-15 100 30 0
-38.26834 92.38795 30 0
-70.71068 70.71068 30 0
-92.38795 38.26834 30 0
-100 1.224606E-14 30 0
-92.38795 -38.26834 30 0
-70.71068 -70.71068 30 0
-38.26834 -92.38795 30 0
-1.83691E-14 -100 30 0
38.26834 -92.38795 30 0
70.71068 -70.71068 30 0
92.38795 -38.26834 30 0
100 0 40 0
92.38795 38.26834 40 0
70.71068 70.71068 40 0
38.26834 92.38795 40 0
6.123032E-15 100 40 0
-38.26834 92.38795 40 0
-70.71068 70.71068 40 0
-92.38795 38.26834 40 0
-100 1.224606E-14 40 0
-92.38795 -38.26834 40 0
-70.71068 -70.71068 40 0
-38.26834 -92.38795 40 0
-1.83691E-14 -100 40 0
38.26834 -92.38795 40 0
70.71068 -70.71068 40 0
92.38795 -38.26834 40 0
100 0 50 0
92.38795 38.26834 50 0
70.71068 70.71068 50 0
38.26834 92.38795 50 0
6.123032E-15 100 50 0
-38.26834 92.38795 50 0
-70.71068 70.71068 50 0
-92.38795 38.26834 50 0
-100 1.224606E-14 50 0
-92.38795 -38.26834 50 0
-70.71068 -70.71068 50 0
-38.26834 -92.38795 50 0
-1.83691E-14 -100 50 0
38.26834 -92.38795 50 0
70.71068 -70.71068 50 0
92.38795 -38.26834 50 0
92.38795 0 88.26834 0
85.35534 35.35534 88.26834 0
65.32815 65.32815 88.26834 0
35.35534 85.35534 88.26834 0
5.656944E-15 92.38795 88.26834 0
-35.35534 85.35534 88.26834 0
-65.32815 65.32815 88.26834 0
-85.35534 35.35534 88.26834 0
-92.38795 1.131389E-14 88.26834 0
-85.35534 -35.35534 88.26834 0
-65.32815 -65.32815 88.26834 0
-35.35534 -85.35534 88.26834 0
-1.697083E-14 -92.38795 88.26834 0
35.35534 -85.35534 88.26834 0
65.32815 -65.32815 88.26834 0
85.35534 -35.35534 88.26834 0
70.71068 0 120.7107 0
65.32815 27.0598 120.7107 0
50 50 120.7107 0
27.0598 65.32815 120.7107 0
4.329637E-15 70.71068 120.7107 0
-27.0598 65.32815 120.7107 0
-50 50 120.7107 0
-65.32815 27.0598 120.7107 0
-70.71068 8.659275E-15 120.7107 0
-65.32815 -27.0598 120.7107 0
-50 -50 120.7107 0
-27.0598 -65.32815 120.7107 0
-1.298891E-14 -70.71068 120.7107 0
27.0598 -65.32815 120.7107 0
50 -50 120.7107 0
65.32815 -27.0598 120.7107 0
38.26834 0 142.388 0
35.35534 14.64466 142.388 0
27.0598 27.0598 142.388 0
14.64466 35.35534 142.388 0
2.343183E-15 38.26834 142.388 0
-14.64466 35.35534 142.388 0
-27.0598 27.0598 142.388 0
-35.35534 14.64466 142.388 0
-38.26834 4.686366E-15 142.388 0
-35.35534 -14.64466 142.388 0
-27.0598 -27.0598 142.388 0
-14.64466 -35.35534 142.388 0
-7.029548E-15 -38.26834 142.388 0
14.64466 -35.35534 142.388 0
27.0598 -27.0598 142.388 0
35.35534 -14.64466 142.388 0
6.123032E-15 0 150 0
